ply
format ascii 1.0
element vertex 703
property double x
property double y
property double z
property uchar red
property uchar green
property uchar blue
end_header
0.1704136199684382 -0.2788785193353160 1.5082122551060435 160 139 118
0.1814046731459528 -0.2821265158645249 1.5065482554230913 135 115 91
0.8731619193698124 -0.3062339912293742 1.7476336740235265 60 41 26
-0.0975458281598572 -0.0587854593321652 1.4193814358304944 70 50 23
0.0759712471176188 -0.1042589220010304 1.4233969551228107 56 38 24
-0.0116665070222691 -0.0759538009191703 1.4252836265003737 65 47 33
0.1123345423906696 -0.2353491693207855 1.5320482263336852 117 97 70
0.1476586941924088 -0.2557590908893373 1.5090127752860640 177 157 133
0.2205417260979309 -0.2824644573132712 1.5007474326664187 105 86 71
0.2091845914199677 -0.2758878074414770 1.4837960340020007 30 13 5
-0.1989377112085293 -0.0407033093368530 1.3974431460272194 50 28 7
-0.1082695341323169 -0.0547822793708621 1.4108076222739798 134 113 84
0.8976908215969350 -0.3380933973409505 1.7109321988401565 104 79 49
0.1801272368255675 -0.2628958886973341 1.4996635076980633 134 112 91
0.4164888702018498 -0.2848667422333953 1.5710364194782838 61 38 20
0.1747516878507005 -0.2582808419620726 1.4939080248482834 125 107 87
0.1060202469779728 -0.2195153155961808 1.5210209245466548 175 157 135
0.1060827383884284 -0.2200852583993695 1.5201811455622645 166 149 123
-0.3492034339089605 -0.0755045405693186 1.2879907233912677 51 46 43
0.3477537278399139 -0.2589907196419012 1.5391795176574297 57 29 15
0.0930782172051755 -0.2010052918465023 1.5057308802812754 178 157 138
0.2046506409173469 -0.2416572954009384 1.4862781550738018 120 99 78
0.1062441383141045 -0.1955452800876249 1.4901009431763108 122 105 89
-0.2520226207787685 -0.0556584929428090 1.3389340428553775 100 82 70
-0.2523597850992540 -0.0549912392678097 1.3394418866942757 92 76 63
0.2043473440279727 -0.2248751800694437 1.4739787020997208 100 81 66
0.0616385561388985 -0.1663334891259535 1.4939366901024227 141 122 105
-0.2087361261520643 -0.0517765879688717 1.3532508445552349 67 49 39
-0.2452628364955254 -0.0532352921029399 1.3375849543561875 50 34 21
0.0966831966799338 -0.1729770155540453 1.4690072372691978 84 65 48
0.0966069121791814 -0.1738293069679507 1.4682143457777523 98 77 60
0.0850872565785277 -0.1763727741827168 1.4876774681645808 83 64 47
0.5092330383061551 -0.0847292669100730 1.5536146814843939 130 102 90
-0.0885430975184031 -0.0491261739501126 1.3874638756054116 104 85 70
-0.1305324026096525 -0.0501565117907567 1.3701862914370870 47 31 16
-0.2552658788731101 -0.0583074180013202 1.3166533017481798 114 98 85
0.0825426014216876 -0.1663646828109036 1.4616809513847906 95 77 57
0.1830591969452573 -0.2021326815367533 1.4627839471676538 66 45 28
0.0764164498196882 -0.1620258527590101 1.4616621414169482 98 77 56
0.9008528260752406 -0.3380846927819527 1.7053520499903152 113 85 61
0.3705816034613857 -0.1183626279008887 1.6299223451589551 131 112 97
0.3470559653421865 -0.1191749942429827 1.6187901977788075 119 102 86
-0.1385192021482277 -0.0458784891805716 1.3650511045172391 100 84 71
0.5311813296174004 -0.1162356492005165 1.6870773367458374 78 57 40
0.1001321431758947 -0.1628509299035206 1.4525759835394101 70 51 36
0.1128666695922712 -0.1650266164983516 1.4541373844283301 115 97 87
0.2507904332977118 -0.1753026098586484 1.4775591773236909 36 17 3
0.0067615768002254 -0.1095314643125355 1.4586530807213030 185 160 106
-0.0939166691471099 -0.0439821339007377 1.3716972961970788 54 35 21
0.0859264413043461 -0.2003640008111720 1.5275046745467680 178 158 133
0.2325666340710210 -0.0717177898462580 1.4434747558856327 79 56 38
0.1077137180395733 -0.1470621178405186 1.4335994532956919 72 54 42
-0.0146648959853378 -0.0315224219897746 1.3687260997233568 143 130 114
0.0219590033320716 0.0018260255300037 1.3951793738350351 188 184 183
-0.0128308334152889 -0.0814831019063868 1.4324415029727966 110 93 67
0.0734371440586671 -0.1741002808169211 1.4880900822843961 210 197 178
0.1631948912363844 -0.3102686037373589 1.5873592311712534 43 24 9
0.1701993396238016 -0.3191106368642220 1.5700114004176451 77 55 34
0.1291782466711497 -0.3014280029146275 1.5758892538628146 117 93 69
-0.1372546025303747 -0.0534685357759112 1.4036340658796216 56 34 11
0.0615938776252262 -0.1628322052933630 1.4847137341205958 91 73 51
-0.1947272845155744 -0.0472471956275227 1.3895084942525711 108 86 65
0.1022085278496633 -0.2565332021847128 1.5753623955170768 84 69 64
0.3836084649866585 -0.3177871160315766 1.5913069098875465 99 80 63
0.4050390721225330 -0.0882592456375393 1.5241636300810693 31 12 6
0.1025129483410697 -0.1607406288702359 1.4549313835760727 94 76 64
0.7791283680136508 -0.0555497100747406 1.6337728854445372 47 20 0
0.0328581991130704 -0.0522249932351335 1.3909123122910949 99 79 68
-0.1499496208277514 -0.0367162933017981 1.3428426514916303 137 121 95
-0.3052667266360386 -0.0428383673505383 1.2490187865458231 70 53 33
0.4709095193956118 -0.4300760447921416 2.0022344643926293 137 133 130
0.1503334639609140 -0.1296528231891013 1.4194345111551077 226 209 202
0.2619030614300153 -0.1303571629276117 1.4556570319528375 33 16 9
0.8967258934484117 -0.3041095503571652 1.8556832608222116 48 26 3
0.1999278366130989 -0.2956468287272534 1.5144783673381592 53 31 18
0.3345175442974934 -0.2964937198326426 1.5768625869210060 82 60 47
0.4079487501931934 -0.2801378209258663 1.5732609320326396 75 52 34
0.0117580571041337 -0.0640633282037954 1.3989438164817163 137 121 106
0.0681999144045833 -0.1685044207206237 1.4835737085149565 180 163 143
0.8458723290799911 -0.2948215703977094 1.6967993451979102 133 104 74
0.3206018557559588 -0.1525455120589300 1.5009694037401988 118 91 70
0.9110396049417102 -0.1854418627910813 1.6512538056811128 136 106 78
0.6490736854973634 -0.0754376442271703 1.5988384093199171 100 69 48
0.1095178685124691 -0.0537078855494830 1.4252228212738713 87 69 57
0.2858262663851046 -0.1527834607390613 1.5555946375239096 172 161 155
-0.0362746627176527 -0.0084435566700766 1.3705091512444665 45 32 24
-0.3470527929558526 0.0138519481953077 1.2919546619961066 184 184 186
0.4550889380835901 -0.3202898632542196 1.5932294749864584 59 33 16
0.7553695164484001 -0.0569599977983931 1.6312190422247275 61 26 4
0.8066851108555493 -0.2501131250918173 1.7525260191283267 55 36 21
0.0103152932811023 -0.0148148490976672 1.3870677732648764 61 47 36
0.1095505346946399 -0.0307018390911512 1.4695942463575442 57 40 30
0.3106628706071592 -0.1431169706554876 1.5462180553604381 16 7 2
0.6865007556085576 -0.2246613070012978 1.7305567722166753 64 33 15
0.1779042567064308 -0.3109571665600348 1.5499414022608844 133 110 92
-0.0142492590918672 -0.0740092380215900 1.4107402732218459 115 97 83
0.2501277899503221 -0.3192384419429092 1.5568346162419824 126 103 87
0.0633509316532740 -0.1247324898350209 1.4385803625480296 60 41 24
0.3322187091712469 -0.3110480277020727 1.5840207425337309 88 64 38
0.1814779158435765 -0.2964969510609167 1.5287158625099637 130 109 90
-0.1317602427962889 -0.0472054448031039 1.3937750177137391 105 88 70
0.1432183081056170 -0.2730717590377854 1.5258580911640265 100 81 66
-0.3473766434241202 -0.0724873001401890 1.2784920613148671 73 57 41
0.2062164592920236 -0.2873081509748303 1.5105304200236178 132 111 94
0.8154394389716358 -0.3201892130659070 1.7340235909053971 142 122 98
0.8973804314600484 -0.3517893642133239 1.7232776646407140 40 8 0
0.1878158640911955 -0.2759365701079021 1.5058206681708861 133 111 90
-0.0122392903219529 -0.0835849767460304 1.4307257623049030 110 93 67
0.1247999654653328 -0.2424688275650746 1.5218410854378484 81 62 47
0.9164386869488014 -0.3382538882090537 1.7324238305383457 122 83 50
0.1350314618790592 -0.2392984608223661 1.5047525605843650 201 185 169
0.3689815691008194 -0.1323682422623961 1.5065694950460700 28 11 3
0.2299530843476613 -0.2433793969497864 1.4959242281596490 172 154 142
-0.1441794680400204 -0.0420152555179568 1.3536708548645442 96 79 69
-0.0434190890454400 -0.0349038608718329 1.3710092241020582 67 51 38
0.1182345006270221 -0.1130126824635955 1.4122041175141653 61 43 29
0.3801894763228167 -0.1132454914445786 1.4962306336930942 49 27 14
0.4294433905476462 -0.0874502267818468 1.6217198290184793 47 26 7
0.1776103619288791 -0.3108809797802496 1.5345409859024688 136 114 91
0.2826914969040384 -0.3126625575787249 1.5754372717679290 118 97 78
0.3031479045633215 -0.3071263554036912 1.5924052856368922 87 67 42
0.9018297636942497 -0.3425965555528854 1.7630993178128938 104 64 38
-0.0662525938362574 -0.0711825614764366 1.4300677058164009 106 89 69
-0.0790008931248336 -0.0659908495574552 1.4278161384425165 87 64 46
-0.1007723710767408 -0.0586461565131179 1.4280119963204767 187 192 195
0.2314126719970143 -0.2907223675066825 1.5140730866754597 108 86 65
0.3836564866340562 -0.2953699864866328 1.5703448327710714 49 27 14
0.1841996946271509 -0.1401799345793329 1.4352483657960562 52 30 17
0.2877887077571107 -0.1357733831303075 1.4609942214374776 147 125 102
0.1473906150378569 -0.2563477962063633 1.5093147425279843 156 135 116
0.1808661122683511 -0.2375683352520563 1.4756556747484484 152 133 118
-0.0240315689632386 -0.0740056468293925 1.4087868454753751 38 21 3
0.1575074288871757 -0.1220782156284353 1.4134526985207816 122 99 81
-0.0410307077849830 -0.0377004914296704 1.3702432679835801 118 102 89
0.0422730453701846 -0.1469362384402550 1.4747142710680119 140 120 93
0.3847695507254831 -0.1195515432783976 1.6328034957657171 22 8 0
-0.0478683942563527 -0.0180674702967435 1.3606684802560418 108 92 79
-0.2923857752914154 -0.0275435186624950 1.2293707621039798 142 126 110
-0.2733572562728217 -0.0621045887109763 1.2883037733835805 100 86 75
0.4038189232180034 -0.2603997965135963 1.5728843965666990 41 17 5
0.0698044527863453 -0.0122011661982610 1.4165088763217191 166 162 163
0.2394156627203641 -0.3166623402945993 1.5683200225340184 72 51 30
0.2529657571152700 -0.2750713313792255 1.5028662058757394 38 19 4
-0.2070236832713293 -0.0504429441190555 1.3449727358662935 54 38 25
0.2965658411349260 -0.1036405691249870 1.4619335520682595 135 114 95
0.3952876181484177 -0.2639546608202306 1.5601793728870290 124 103 84
0.1562145975903436 -0.2195301066997879 1.4716658382415719 240 233 225
0.3223931184707161 -0.3001797317014496 1.5488917508662725 37 18 11
0.1540492840131101 -0.2246451973070331 1.4839739210916918 116 97 80
0.0410134510534830 -0.1495195104428250 1.4972682390325125 176 177 179
0.6680964166159513 -0.0763499180762767 1.5996133720300425 91 57 30
0.6915124930060691 -0.0703546312986994 1.6095130110783300 57 27 1
0.0085331757946898 -0.1173839669864872 1.4683634967387300 179 179 181
0.0096675051567957 -0.1186827493851624 1.4590551137815044 112 91 62
-0.0288431344748216 0.0152714581012341 1.3868289414481036 180 180 178
-0.2457440716986754 -0.0106595146989483 1.2169294816110374 178 179 181
0.1188087908514092 -0.2795453145267864 1.5708788118513768 192 171 152
-0.0269468523176865 -0.0765063192598089 1.4004453171759235 188 171 155
0.2698405369477448 -0.3103739726863712 1.5402683426673036 162 138 112
0.2666475797558817 -0.2754344700150548 1.5085165557188474 76 55 36
0.7043921890898319 -0.0976365111386767 1.6193903523047115 130 100 74
0.3454067737465706 -0.0900638127924141 1.4945295461308710 133 110 94
0.6434977107300850 -0.0879268235250898 1.5961278171905038 153 123 97
0.4206460187785377 -0.3227699757849734 1.5903878923994033 183 158 118
0.8225767971836350 -0.3122847739716778 1.7157449032175351 132 98 71
0.7358560244495782 -0.2414149913397343 1.7428686142097463 45 27 13
0.8238776136441436 0.0220599981080350 1.8757750310993526 126 99 72
-0.2703542383844861 -0.0450613829860439 1.2640854523371237 39 25 16
0.3082599328082364 -0.1328820697826591 1.6142361737814022 144 128 115
0.2758843917757740 0.2666927668604397 1.7207783194568067 175 174 172
0.7001422689742484 0.1585509305441664 1.7731402807219512 174 169 166
0.1440271374137554 -0.3082560738303869 1.6173738981800647 177 176 172
-0.0567603552433191 -0.0022399393356662 1.3656272755090089 86 70 55
0.2564156314923494 -0.3280458764832740 1.6261286295624133 77 52 30
0.2561552086027103 -0.3317597997991227 1.6130849874348074 107 83 59
0.2886602370767088 -0.3248339245252642 1.6132473756559336 49 23 8
0.1403368881949482 -0.3003707548950352 1.5705216473563308 100 76 50
0.1841409870462215 -0.3180499657870350 1.5579383642681885 155 131 107
0.1257629523320370 -0.2924659868916386 1.5674066879495054 183 158 138
0.1142913363930258 -0.2769183795851471 1.5850028320054739 178 161 143
0.1804060247630123 -0.0956285886400345 1.4104690925929999 101 79 58
0.3189244409529974 -0.1505241055154336 1.5088248987376436 27 14 8
0.2029203906927229 -0.3191454916715459 1.5501595289393451 76 54 33
0.6562876199280983 -0.0771994815733179 1.5970372887546906 67 33 6
0.1973788608054707 -0.3187859644662314 1.5468943460310742 112 90 69
0.1961924813770475 -0.3179650136603613 1.5437956533450323 65 43 20
0.1961460976397580 -0.3177292023898115 1.5441084079829088 52 29 11
0.2945525855673570 -0.3114940580847754 1.5995593964638259 141 117 73
0.1277748491588807 -0.2786789003460324 1.5638857140822473 69 45 21
0.3192067171526300 -0.3207001266864529 1.5899381229639498 132 108 70
0.4330808077041987 -0.2844272824872031 1.7007953828901234 91 61 35
0.3018668685679371 -0.1505668726134667 1.4919107183464302 58 33 11
0.1208771488157648 -0.2896839701835800 1.5859787441749371 140 121 104
0.2300830185671921 -0.1586058117400455 1.4531043252007445 154 126 112
0.1586406963727418 -0.2970345341599439 1.5398744191822211 46 28 16
0.8469867643169633 -0.3233950966116229 1.8307108307717270 59 38 17
0.3411846443988271 -0.3190887112611282 1.5904754789126794 66 47 30
0.2219871090281494 -0.1510801150808776 1.4480054732242380 123 98 78
0.3436197039911221 -0.3183447533263587 1.5862760575688102 147 123 85
0.1857896748423721 -0.3051492569571022 1.5267552869647913 59 37 16
0.4704768034485354 -0.3447495424570405 1.6013722280469924 38 15 0
-0.0586893592280575 -0.0715183970012075 1.4250240773518856 68 47 18
0.4446659523903485 -0.3408518330292606 1.5878769336227030 107 88 71
0.3896533327452433 -0.3199092269072966 1.5898658220309625 85 64 47
0.2555987757698912 -0.3161612846951863 1.5534411852798979 83 65 51
-0.0296005765827859 -0.0742125214987858 1.4297828163983775 112 92 59
0.2417796281564611 -0.3052311168073499 1.5239508686726473 38 19 5
0.3687667279026659 -0.3078581614398586 1.5798807956621999 50 29 10
0.1134159616265631 -0.2515269433145201 1.5405780657809836 191 171 147
0.3297958500208691 -0.3023538148254057 1.5609917574065382 88 61 42
-0.1172572294964942 -0.0580927031999115 1.4060140950640254 60 38 15
0.0171081381606027 -0.0868675279970045 1.4214816903292271 95 76 61
0.2383627324318617 -0.2971093623876166 1.5230120680725534 17 0 0
0.8086347478757043 -0.3225794531844816 1.7334061450941411 147 123 97
0.3206744773299874 -0.1256659635436893 1.4738049163632314 95 68 51
0.9097967587937755 0.0039425318601124 1.6102264089624969 82 45 18
0.2123473136851993 -0.2846185647329343 1.5063772580024757 126 103 85
0.2712166311378856 -0.2917809061515207 1.5200041587334046 54 36 24
0.1478331683692889 -0.2623634387054099 1.5046902902947628 122 101 80
0.4789581392337395 -0.2859281675861144 1.6095513152553935 84 53 32
0.2081725275295636 -0.2725825659645588 1.4976974206566727 52 35 25
0.3473624612465132 -0.2862767337246857 1.5484121852514114 77 58 43
0.3443057848995588 -0.2811146276599873 1.5414436049361466 30 10 0
0.2052588397370680 -0.2677464811312091 1.4963608763514082 104 84 73
-0.3487485038346407 -0.0781225831609090 1.2735239962254070 139 121 107
0.2933708427902832 -0.2776457683348565 1.5134952722081172 93 74 57
0.1980854157801386 -0.2587316511827138 1.4919032411961568 81 63 51
0.1224899863984130 -0.1073437564170654 1.4077665991286439 192 174 164
0.1991821898471693 -0.2526156476053073 1.4955105137713838 28 10 0
0.1912390646823214 -0.2380941049114858 1.4989004013084126 94 75 60
0.8500968693914871 -0.3159460970227774 1.8490491661240749 63 45 23
0.2010647849430923 -0.2521443752403336 1.4900000060222620 78 60 48
0.8600378630713298 -0.3245588715643417 1.8305860732174357 55 28 11
0.1264077582812839 -0.2142377006651711 1.4862157068545516 165 143 122
-0.2502160854435156 -0.0548387397701585 1.3234884555569282 114 96 84
0.1697271624370481 -0.2375934510913579 1.4795277766578829 42 20 7
0.0827534263774649 -0.1844143651011159 1.4907403201240133 211 199 185
0.0746274620526599 -0.1807077368763962 1.5098087077714919 177 153 127
0.2983138467432678 -0.2320186571672037 1.5139723348335028 129 110 95
0.3050016586142447 -0.1007107998803930 1.4677738829764406 19 0 0
0.3039136085261182 -0.1035677419388090 1.4643662824876522 19 0 0
0.1086916373770171 -0.2016648970081174 1.4951944235140484 171 152 138
0.1913307050192435 -0.2167270716001605 1.4655731497392610 98 79 62
0.0403146893605297 -0.1564860869726608 1.4716637268772004 79 58 41
0.1054105289626145 -0.1741603816380248 1.4670226539344704 86 69 51
0.2713748427681105 -0.1006131219815120 1.4423584751418352 42 19 5
-0.0153610980988808 -0.0555844007746729 1.3872683003931927 56 38 24
-0.0864966107506401 -0.0435082737241797 1.3748136601249088 67 48 34
-0.1437215446248210 -0.0382376190724864 1.3600423821953611 40 24 11
0.1138428635667959 -0.1708819214812550 1.4611611678788621 95 77 63
0.1204663547938169 -0.1714378222391199 1.4612989757155423 37 20 12
-0.1949540718931549 -0.0429940377480430 1.3364965369606501 55 37 25
0.0421890388617714 -0.1388633039376546 1.4674133696824494 128 110 86
0.1952413869058484 -0.1583769651538720 1.4528176776871673 18 0 0
0.1828111505475927 -0.0961204811254632 1.4077684916220912 37 18 4
0.2567488847630107 -0.0863548436931060 1.4430772706906916 64 42 28
0.5363175754127441 -0.1167193855313038 1.6829814755665082 118 92 67
0.4228224780661111 -0.1267337159129898 1.5590030529381196 74 51 33
0.1564701987481769 -0.1461192553535459 1.4249406412143504 101 80 63
-0.0462745947193845 -0.0742373743684153 1.4313237124259683 125 105 80
0.4045153212273879 -0.1281683557178773 1.5291249943508125 35 11 1
-0.1023849648134999 -0.0459516395554609 1.4324735145554008 100 80 53
-0.3142257013149365 -0.0634833605808958 1.2517562820929549 108 93 72
-0.1388499146621303 -0.0604146446842569 1.3996262683588154 108 83 63
-0.2912066794381944 -0.0604481633605275 1.2568825040297535 90 74 61
-0.0008410305073519 -0.0826865592597170 1.4163472870442217 131 114 94
0.2162986033440554 -0.1241525056164625 1.4382850140445960 52 31 14
-0.3016445700448615 -0.0994470007625495 1.2769875453122863 80 63 55
-0.3266674218630439 -0.0929558141149408 1.2693698460340228 102 88 79
0.4008025165832645 -0.1334283151301719 1.5367647816456489 79 57 36
-0.3138125774921909 -0.0952507432358596 1.2977040767318746 46 35 33
0.0157602885698661 -0.0829918265615966 1.4034181749699652 20 4 0
-0.2243450672126611 -0.0520517234200356 1.3422301814221207 51 35 22
0.4838306970607958 -0.0886193685210105 1.5448696494783687 42 23 9
-0.1416651263922162 -0.0171552904708151 1.3394944631068912 57 40 30
0.6925396492376348 -0.3163811248590960 1.6825273652516939 137 109 85
0.0991761664859440 -0.1059335592593360 1.4153223367024150 153 135 111
0.4366497509415891 -0.2841515416105895 1.5837663652150327 66 38 24
-0.2125011256696148 -0.0492122783580315 1.3591226309246078 136 118 98
0.8274818214595429 -0.2203584985146633 1.9088080115361568 119 97 74
0.4138810802237815 -0.0930607847318059 1.5237571120345215 45 22 6
0.5496271430402230 -0.3224878131749631 1.6397874127927348 82 54 32
0.6515823078470648 -0.0775781338309939 1.7382933230401261 51 25 8
0.2298864704967620 -0.1452225755106981 1.4412226966944564 120 96 72
0.8638191727031866 -0.3289589312487753 1.8040668738054531 37 18 3
0.6056245356521069 -0.0887965684265677 1.5861145486205779 144 116 92
0.2006592146557873 -0.0791670127788891 1.4220411444327812 78 61 45
0.7486142919103865 -0.0791452803187263 1.6258124155367775 145 112 81
-0.1912594420965711 -0.0261328612316464 1.3337898866531424 45 28 18
0.1135940273642310 -0.1665505163193043 1.4570287056620754 86 68 56
0.9058557714523420 -0.2555995712526092 1.7705427571897858 91 61 35
0.4550917685435116 -0.7290606557783428 2.0910040594775499 117 113 110
0.7667541542403525 -0.6129679776032947 2.1608626714745807 186 183 178
-0.0077133374033930 -0.0969864955403055 1.4466001682271146 170 142 102
0.2041269466249866 -0.3290980238285666 1.6367818887338423 177 177 177
0.1616660353265683 -0.3130208225458003 1.5878622519177996 140 112 73
0.1966958407883162 -0.3261723915771988 1.5682470319672843 125 102 88
0.1900475994093728 -0.3215231021402217 1.5597815725117357 106 80 53
0.1801632447444203 -0.3166954086715859 1.5535338632905604 139 115 89
0.2262436007919107 -0.3131505578827450 1.5783285595688525 22 8 0
0.1464114255836512 -0.2925049781036117 1.5648653385556799 97 74 56
-0.0307749334951821 -0.0833163614755014 1.4373960804288903 66 45 18
0.1540010797685083 -0.1455870752614703 1.4333656733560203 40 21 4
0.8552041607319807 -0.3122667167857635 1.8716088920105420 63 35 11
-0.0269950899412181 -0.0813211563382718 1.4358348288887262 126 104 80
-0.1784895506267235 -0.0308315532059713 1.3272749230395895 85 69 56
0.4031037482931099 -0.2750410632984472 1.6991082429355906 30 12 8
0.4367128058463469 -0.2815745822548867 1.6943881221992743 70 44 19
0.1434297016011637 -0.2763005822301657 1.5426807015904327 171 154 136
0.2536964524872515 -0.2949762999995190 1.5585167338221637 80 60 49
0.3899170296102252 -0.1289089930777700 1.5146456611142642 28 1 0
0.2384471170261391 -0.2970112668753847 1.5231428525500550 17 0 0
0.6021828742130698 -0.3258758611973199 1.6518087767846086 145 115 91
0.5744318104713572 -0.3221752752482850 1.6344739197152727 161 137 113
-0.0467411781819653 -0.0622337795004719 1.4094280640495289 114 96 82
0.1350427566819597 -0.2937826542195774 1.5610839845990985 210 202 183
0.6607535689611915 -0.3220317249867949 1.6674725689017420 146 116 92
0.8013490903691257 -0.3241933049185532 1.7276815397366312 128 107 78
0.1537134818933014 -0.2630089971433314 1.5113140678185848 175 153 129
0.4972539549778695 -0.1150909095584390 1.5494774263213593 61 31 7
-0.1164314855057405 -0.0506778492399228 1.3869783054793714 48 31 15
0.2420049077903978 -0.2804645679846465 1.5144142656727011 121 100 81
0.1906534770328527 -0.1162336005566195 1.4252546055092017 42 20 6
0.2252037306745089 -0.1120661011925618 1.4412331735096580 61 40 21
0.2255932972090679 -0.2739810270210984 1.5007704220921196 89 70 55
-0.2175845365751844 -0.0558285890000821 1.3400300811786934 57 39 27
0.3270675859101395 -0.1184595034770722 1.4711733955206341 140 117 101
0.2673696335362020 -0.2823835246597430 1.5117628686104096 118 100 80
0.3976559383509742 -0.2685073978069574 1.5671225716689619 33 9 0
0.2047434830652800 -0.2414291568319832 1.4865428896751565 120 99 78
0.2231359255264021 -0.2300385078440259 1.4781386287620073 181 164 138
-0.0238207555707481 -0.0589782033868818 1.3891767058079747 139 121 107
0.0829079953404875 -0.1726127377792887 1.4844199400355915 59 38 19
0.1024115938903020 -0.1817408907004485 1.4747358446297105 46 30 14
0.1588143606043665 -0.0966082319937680 1.4052382997802018 37 17 8
0.1560750645957324 -0.1999675231267538 1.4677104856831669 60 44 29
0.2609382672481083 -0.2084474344074098 1.4943577332832503 41 23 11
0.1153160365169121 -0.2106857299901442 1.4995130878796585 163 142 121
0.0290848164164384 -0.1314639960267691 1.4704057119770031 104 80 56
0.1684597948986357 -0.1780830035932161 1.4504753515259836 94 80 67
0.0566429691084244 -0.1212713087047532 1.4447448701372492 159 143 120
0.4577753429674602 -0.0858983062612242 1.6373625658051345 66 37 19
0.1031006370269975 -0.1313193860838302 1.4252249106985568 93 74 59
-0.0707621336094905 -0.0701739159326495 1.4275072510101796 93 78 57
-0.3008503725174224 -0.0542903698543688 1.3562452486351306 78 58 47
-0.1058455289737823 -0.0531962802581291 1.4312776751935825 188 191 196
0.1787506115817444 -0.1329659982921387 1.4410779681315296 168 149 134
-0.0227281101180903 -0.0785627579250447 1.4347364151133812 133 108 78
0.1839131860064865 -0.1327022904865539 1.4243207987051485 174 152 131
0.5910973553417059 -0.0808701168470251 1.5830755960981167 78 45 14
-0.0189974566180626 -0.0641312938420760 1.3976579652306818 52 36 21
-0.2848793069570669 -0.0635995671230745 1.2916243162481587 40 27 19
0.7158522135587337 -0.0907829532078931 1.6250174083989497 153 121 96
0.7172907213422998 -0.0684614881125366 1.6149172502789799 72 36 14
0.4292772130564825 -0.1235443720158761 1.5469706026836680 118 90 66
0.3103841296365857 -0.2571031414634780 1.5162340064585436 106 81 61
0.4600134833495932 -0.3066226934319776 1.5966966140536238 124 94 68
-0.1664746218088007 -0.0191212337313574 1.3300875549597986 186 188 187
-0.3544194800556874 0.0221067448633684 1.3042604606512296 184 188 189
0.4234597122084822 -0.0846432058151387 1.6240829023956445 47 25 11
0.4004246766181422 -0.1274085812553512 1.5497846997346287 46 26 15
-0.1306444972656204 -0.0166407020566272 1.3427568522425188 58 39 32
0.3876658277039158 -0.2650193185713116 1.5620082002227229 40 22 12
0.7934657210965919 -0.1048237760133569 1.8579240425091941 133 102 74
-0.0301959879831950 -0.0881585181381084 1.4116951230161445 122 99 68
0.1441938247285925 -0.2889130160726774 1.5482268202739682 146 125 96
0.2972874753124613 -0.3351150298190143 1.5964276155280237 92 72 48
0.1299335305398102 -0.2821272440580270 1.5581760017892516 158 134 110
0.1920158911016097 -0.3302965254318865 1.6272006529203273 64 51 35
-0.0163096512991006 -0.0740940883164073 1.4097018820201139 109 91 77
0.1474031543317919 -0.2531258012948880 1.5040991843018729 162 144 122
0.0833141301988228 -0.1864378932069516 1.5473957422507101 95 75 51
-0.1297064274561649 -0.0450826536662259 1.3836912764142211 90 74 61
0.1317744402919140 -0.2221946553325101 1.4834650825861075 93 77 54
0.3222811564165902 -0.2432994901911150 1.5222792694862388 136 113 99
0.1268811767544231 -0.2077272154190883 1.4893805654028704 119 97 76
0.1476193593199041 -0.2216305746425661 1.4758428855752568 79 58 41
0.0764735798413393 -0.1759946907459432 1.5006029334776225 139 118 97
0.1803011704134722 -0.2866470829835533 1.5098844385449213 134 113 94
0.1127155925019834 -0.2017013757071540 1.4812775878908324 141 122 107
0.3679588457574368 -0.2959539001326731 1.5669488971393293 92 73 58
0.1589630563590799 -0.1986361393325224 1.4664176417064023 116 97 82
0.0937723979543056 -0.1694703738016375 1.4699125997038469 85 67 47
0.1259936207409865 -0.0776989252035391 1.4119006485454610 179 161 147
0.0666602714297619 -0.1399465551016667 1.4467865130566520 107 87 63
0.1887812997560315 -0.0852251427801356 1.4212510597772510 48 26 12
0.0502635061147194 -0.1249196741498885 1.4496387493546929 100 83 57
0.9490742014152965 -0.2367059517129209 1.6864282210856063 115 69 45
0.0779282740580861 -0.1391376690215763 1.4401117242090116 78 59 45
0.0232849276094843 -0.0956137809686962 1.4365965258558919 186 167 150
0.0973598541569644 -0.1408160023702753 1.4264651694886630 149 132 116
-0.2697779092228368 -0.0485346513616926 1.2704436934892316 114 95 80
-0.3007378387239506 -0.0670479445878857 1.3325168346135750 93 76 60
0.0102359887344119 -0.0923972280730576 1.4385593366663605 79 61 41
-0.0384380911980418 -0.0688416260017184 1.4409627081306702 69 49 24
-0.3268250623993850 -0.1189451173606906 1.2713884713347048 184 188 189
-0.0557955022462810 -0.0781442817730530 1.4221010733673005 136 115 88
-0.0713747358792610 0.0021661047839506 1.3638385942307498 176 178 177
0.4640569765552335 -0.1195461100475844 1.6675803653368315 124 105 90
-0.2712541799725887 -0.0635737237185569 1.3222848198255313 84 67 57
0.7411302364749497 -0.1111330537712841 1.7958855015410364 81 49 26
-0.2460223648389017 -0.0176787854250755 1.2025604922498887 195 196 198
0.3013834045678933 -0.1510958839358985 1.4839248064204311 132 105 88
0.2417452393847163 -0.0814149427289245 1.4326874297740451 87 61 48
-0.0916352001024986 -0.0564459100555332 1.4077026430663810 115 91 63
0.2316250468098470 -0.3242007099601392 1.5616397032975231 88 70 50
-0.0233081877931341 0.0015719434628588 1.3798149659698251 47 34 26
0.6477910789089560 -0.0775229779778500 1.5962837443296538 89 58 30
-0.0397360744152105 -0.0626389750678318 1.4125278054907258 71 53 39
0.6251657255462969 -0.0920650955756162 1.6116831498301989 136 106 82
0.6578522184777812 -0.0801589350522067 1.6074989676279476 149 119 95
0.1162154156073768 0.0337875171605403 1.5046618109632126 120 104 91
0.5360977846302294 -0.3227853555412974 1.6373090803875348 60 31 13
-0.3332456374900145 -0.0247706962767051 1.2727403490660292 166 151 132
-0.1825440248242952 -0.0252945712662328 1.3216719410079585 183 184 186
0.4614429837063994 -0.2942773909410354 1.6959520210859043 46 23 9
0.4378695063491226 -0.7393352493586489 2.0251038364871281 122 121 116
0.4524378087017760 -0.6917133788777642 2.0776570434381347 93 89 86
0.2510030100883737 -0.3331063541416154 1.6230142368225842 172 172 170
0.2637687065871933 -0.3275680559071352 1.6193715514645484 116 90 63
0.1309672666924061 -0.2932840029027043 1.5885393587206549 103 79 51
0.5543388153164445 -0.1088572678904528 1.6984628227730663 95 69 46
0.0184036578482212 -0.1158872934833394 1.4623830667000657 146 123 81
0.2619639197914366 -0.3076510788266118 1.6059796238455173 94 75 58
0.0391525209138629 -0.1234358623147596 1.4473907030844455 49 32 16
0.1891218174197841 -0.3200575612642499 1.5452228014532365 140 116 92
-0.2931705189043696 -0.0206459811633146 1.2270432364010277 86 78 67
0.2725065944217093 -0.3059639823970906 1.6033929125918627 73 60 43
0.0289309521029816 -0.1079767645285923 1.4442304408704143 100 81 64
0.1810099962232861 -0.3133736022693635 1.5312123401790461 72 50 29
0.1719004492724322 -0.3041880692031630 1.5251375036351471 177 151 134
0.1415793599366739 -0.2856432890924250 1.5196363498394843 117 99 85
0.8853398605246722 -0.3161701834183597 1.8208394340586842 39 18 1
0.2352033521097861 -0.2877129642105193 1.5225429625065228 59 35 23
0.5643228241687118 -0.3227879572589665 1.6430462314135683 86 60 37
0.3507773328210231 -0.3162657245076287 1.6055288171799740 127 101 66
-0.1289833777436136 -0.0557589706122641 1.4113213856835374 126 101 79
-0.1175672327344941 -0.0545615834673227 1.4101739604918353 72 50 27
0.2718006939554902 -0.2903684998398596 1.5080645008746709 60 42 30
0.2086541523433296 -0.2919752094165465 1.4896815638406065 52 31 14
0.1178402966709320 -0.1303910321172175 1.4173077803246255 61 42 25
0.6970853361535105 -0.2583127539384868 1.8111175104342623 79 53 30
0.1453342732749172 -0.2437900762684347 1.5020071383125262 64 41 23
0.4504501789228235 -0.2972745091997674 1.5903489593788953 44 22 8
0.0770795385835919 -0.1085598365737920 1.4220209948196079 87 65 51
0.1750036798497361 -0.2651244458313955 1.4967937321773361 145 124 103
0.0849811718248410 -0.1975735361398310 1.5236833199562603 173 147 124
-0.1746630026708706 -0.0480561126358678 1.3849544560088682 116 94 71
0.1764427114048413 -0.2636858982753002 1.4641128081737484 166 147 132
0.1164337724061538 -0.2144265086355152 1.5053260362498415 157 137 113
-0.2602654489305116 -0.0569066532609078 1.3374584031506651 88 70 58
0.1235317239008943 -0.2132233526954730 1.4925957492474760 163 145 125
-0.2188532097571879 -0.0563829929219241 1.3393583975462349 54 37 27
0.1927824322255743 -0.2362993641216315 1.4764178317456522 53 34 17
0.4181650843634206 -0.2713537549663428 1.5784214361829547 72 49 33
0.3365199457018671 -0.2339282520791751 1.5339372343669195 132 109 93
-0.2064618375735128 -0.0522712131853613 1.3335172185186210 55 37 27
0.1018641343687834 -0.1826913701122772 1.4736748504369639 74 55 38
0.1467147647232170 -0.2259879577775682 1.4806802326679172 99 80 66
0.0470089289568292 -0.1509221655589565 1.4798727204725393 81 63 41
0.0396528642346306 -0.1481723605612837 1.4763100502223219 69 49 25
0.0829769123059406 -0.1647113630822442 1.4635989957323627 99 78 57
0.0452505022879702 -0.1250470166032796 1.4540003761098854 156 138 116
0.2449172395367233 -0.2105005528704485 1.4766835115564574 101 78 64
0.0307157591934478 -0.1399482519627960 1.4678173637429881 182 159 117
-0.1337550150587773 -0.0417392142808017 1.3601835344185711 83 66 56
0.2361013891272330 -0.2000250842740197 1.4691579040977831 91 73 61
-0.3010430716961935 -0.0588793455311802 1.3363893830690259 45 27 7
-0.0390811829826935 -0.0510300339777335 1.3761777804871671 53 37 24
-0.1305183706457641 -0.0165504625645688 1.3418565228665806 50 33 23
0.5631187575786664 -0.3241095550667727 1.6374422733140617 136 110 85
0.4917949799820157 -0.3257923539952408 1.6349012650153942 37 17 6
-0.2439083154716940 -0.0344741291953103 1.3056736168819856 42 28 19
0.7485430498451887 -0.0806530233529649 1.6217824116469153 126 95 67
0.8163768906405768 -0.2073627458110084 1.9406348793180668 142 97 58
0.5603490109597483 -0.0994262201500820 1.6977866542528521 43 23 12
0.2252560175260003 -0.1772080060749946 1.4687586000322228 80 61 47
-0.2875203166163846 -0.0309003643439671 1.2287496053849953 157 141 118
0.2774117667461289 -0.3262543175244610 1.6176571533597681 101 78 47
0.2455341027789361 -0.3197445369391183 1.5695823936274755 98 77 58
0.2066974952997918 -0.0838553416948733 1.4205148200767881 59 37 23
0.3426194516402456 -0.3146464987032930 1.6111943182988180 171 142 108
0.3467408308946263 -0.3229136195643294 1.5821143691974631 61 42 25
0.4507043046545283 -0.3383993041468549 1.6072649885500836 62 45 29
0.1700635463291037 -0.3035655756705991 1.5145310706519233 143 120 102
0.2443269799854959 -0.3062455596771932 1.5333265523936386 87 70 52
0.2642660408096965 -0.1548714670379576 1.4623183598292082 98 72 59
0.2507147293392118 -0.3030713084970207 1.5234571766657425 90 69 50
0.3301015997564182 -0.3048483597732815 1.5582039586190919 88 59 43
0.5406321559384676 -0.3208589122236155 1.6372576140096244 118 90 66
0.5972398594935802 -0.3214327175434681 1.6488882860001477 131 103 79
0.3702206842731149 -0.2926867025193458 1.5714845578059431 104 85 71
-0.1007685498353620 -0.0555045125246411 1.4054204466114484 157 135 98
0.1416779838472627 -0.1264072302359903 1.4252415203802591 81 59 46
0.1602820112148791 -0.2619712486332957 1.5010118109852579 143 121 100
0.1059010452807780 -0.2202891914378842 1.5201221951615271 175 157 135
0.1395002995709400 -0.2235376848113954 1.4866474939059517 171 153 133
0.2455479988190938 -0.2283209715503740 1.4960576485789976 83 65 53
0.2047028876354197 -0.2216038898489628 1.4737917889857930 60 41 27
0.7867877024484118 -0.3224911275623789 1.7164579221965484 68 42 19
0.1439545705173138 -0.1696716731086318 1.4572126539108581 78 61 51
-0.0591886228981230 -0.0452907973047051 1.3670232939187554 59 43 28
0.1983237340190184 -0.2379398500436423 1.4803258832543096 112 91 74
0.3393566057960656 -0.2313875200873784 1.5383166026008930 128 107 90
0.7147924339731855 -0.1033867576130427 1.7783001570055801 108 84 58
0.0725512925305398 -0.1029753268558759 1.4143623335513127 62 44 30
0.3019844361375930 -0.1488440763274581 1.5052380287044778 17 6 0
0.3232577483884703 -0.1000792526572752 1.4803038742133565 58 35 19
0.3243584461776729 -0.1095716388091131 1.4720356795970042 64 42 28
0.0965656979435287 -0.0660118692777286 1.4095557318920460 83 65 51
0.3413724892238563 -0.4378711105263310 1.9505917649896809 189 185 184
0.4716397049481627 -0.4293108517222189 2.0026164953902965 137 133 130
0.5429360620038444 -0.3215664382132925 1.6435742805626146 70 42 21
0.2408938359061194 -0.3171324672503231 1.5842517496438087 23 13 3
0.6446126086121784 -0.3206408072813126 1.6624718630902071 144 116 92
0.0894413714989891 -0.2085788855739717 1.5374102650973980 179 161 137
0.3779232840067677 -0.2894381971870939 1.5662563984340236 133 111 88
0.2777294167505666 -0.2382828903877215 1.5136530830114416 37 20 10
0.1343614088430794 -0.1884750245161211 1.4358708043222534 30 15 12
0.7398758710008234 -0.0838966203061125 1.6320126476273078 62 31 10
-0.0613352767396366 -0.0349719058428607 1.3752871270580564 73 57 42
0.4127333771545112 -0.2741982943049753 1.6926477050260511 27 14 6
0.4552917907371160 -0.1040670712166319 1.5330703338666369 147 117 91
0.2640752952642159 -0.3100605667894253 1.5912353411266940 24 15 6
-0.3408149547942573 -0.0814609801085130 1.2910949800179665 176 180 179
-0.3531378468734109 0.0290258742991037 1.3012335146528953 184 186 185
-0.3254041142090460 -0.0725641273524787 1.3323808138080648 181 182 184
0.7275960653503609 -0.2756088215064367 1.7237032023398942 151 125 100
0.4334167346849571 -0.0766039169295859 1.5704959095447018 54 28 11
0.0351958370735451 -0.0276457001017196 1.4075066397844003 78 62 47
0.1714405865764755 -0.3175976859513790 1.5808468263769142 85 64 45
0.2990418254747804 -0.3221841927144045 1.6162377277726805 111 87 63
0.1846026816166525 -0.3174473730633617 1.5550431460919802 80 55 33
0.0698356948526332 -0.1265138116727763 1.4376332502011746 56 39 29
0.2146398761678668 -0.3220194584024042 1.5685306890726936 175 154 133
0.3403764271399259 -0.3192877511312002 1.6036417089639936 171 142 108
0.0499812409961472 -0.0184217360790867 1.3975981716002965 43 25 5
0.4896609982896850 -0.0774618285860782 1.6586114960571507 135 109 92
0.3485588149627801 -0.3211707958180286 1.5971442290119944 126 101 71
0.3289164956402290 -0.1488961476315714 1.5138892964659687 81 64 54
0.3275236133683521 -0.1518557197774597 1.5112293554544698 72 59 53
-0.3042817492539684 -0.0629303844376273 1.3444394778378412 52 43 36
0.4622021904380960 -0.3452741677730628 1.6110272273983182 43 24 9
0.1984727164321327 -0.2985912555715873 1.5390720757635175 48 27 10
-0.3217172840321271 -0.1224660717212985 1.2718871485556054 42 40 41
0.0065846853939617 -0.0907062739103069 1.4338202208176394 112 93 76
0.3585520042516254 -0.3238540909399053 1.5743561758493920 105 86 56
0.2501639362685290 -0.3065016146256135 1.5283265060283930 38 22 6
0.8654330914646601 -0.3287964192968053 1.7882856411040868 125 105 81
0.2800628224272122 -0.2964444323749286 1.5397296384721884 49 30 13
0.7788248392069043 -0.0573244124367149 1.6443190292602168 41 18 4
0.3761850285054583 -0.2972856299215021 1.5811262926279848 60 37 19
0.6358838580551229 -0.3212056270026581 1.6655620810232901 70 42 18
0.5638852355124612 -0.3201582392290761 1.6392024010034754 106 80 55
0.2569712137632979 -0.2920003263675027 1.5232403434370070 62 43 28
0.5953353099017893 -0.3205095064621319 1.6412215313376037 160 133 114
0.0885093465877997 -0.2047467787475014 1.5441186742444937 177 159 135
0.9164691898371803 -0.3402934434887437 1.7620369218453038 132 82 47
-0.1049059066517323 -0.0534269001587177 1.3795957649446502 66 49 33
0.2867378726019322 -0.2919418042904176 1.5236511322105448 38 20 8
0.3722548524904611 -0.2927014762600471 1.5632908968624168 46 23 7
0.0789995328120699 -0.1807802511258084 1.5460946438910521 178 177 183
-0.2864858382367571 -0.0581367955063920 1.2981739115589410 42 29 20
0.4134701464326718 -0.2588889464146403 1.5787117111241205 88 65 47
-0.3477986509378076 -0.0385613634413494 1.2915975507454647 117 101 78
0.0442057353491708 -0.0643179568093502 1.3962779509564496 45 29 16
0.1329841884756310 -0.2222485948714773 1.4978763282869030 159 138 117
-0.2712562050422473 -0.0571176768864328 1.2693242375434550 36 19 11
0.2229826086384092 -0.0874694023583452 1.4192699296661453 109 85 61
0.8908834139714955 -0.3427688899607531 1.7335630973201508 159 130 100
-0.1093365982147525 -0.0156563621614095 1.3461592556196256 57 39 25
0.1430705455147649 -0.2110569053354264 1.4756063345401558 60 41 24
0.2400852134470899 -0.2287881046624422 1.4946906030319920 84 68 55
-0.3020151141085037 -0.0539701310857258 1.3426353035173095 52 33 18
0.0794545669099205 -0.1618008096763553 1.4540033183855809 142 124 102
0.4989336567044294 -0.1167259067116615 1.6765629730335210 64 41 27
0.0979414178775095 -0.1600024784492312 1.4540679925655160 51 33 19
-0.1020074293887747 -0.0508153376813222 1.4230980459315474 104 84 59
-0.3533878925110051 -0.0162607204956214 1.2947504850486540 195 193 196
-0.3175601411965240 -0.0310080597981281 1.2529212056900889 179 160 143
0.6029810525865554 -0.3194613991971710 1.6668204250522298 125 97 73
-0.3276682470454809 -0.0710825236920978 1.2812672043142799 36 27 22
0.4012866529224524 -0.2745357962538452 1.6994171825229436 40 23 16
0.0728644518250608 -0.0668053512751119 1.3963149685875087 182 161 140
0.1215195661016409 -0.0758578974810570 1.4144435563596560 52 35 27
0.7588533525603774 -0.3095467609867118 1.6787690049196726 153 123 99
0.7976721619710830 -0.0825853982424681 1.6601729470001820 111 81 57
0.7614911214452200 -0.1019486962812266 1.7957080202426112 117 91 68
0.1223091095196656 -0.2131492799096139 1.4798938256299534 139 119 95
0.4303420526765177 -0.0828008224002852 1.5425913393435313 43 19 7
0.1400039424455818 -0.2989544664910644 1.5893134481671334 105 80 58
-0.0033284414153042 -0.1001664535322069 1.4388488411080127 160 135 94
0.0105678706849508 -0.1010923185890229 1.4315464475750379 73 54 39
0.6582018673204695 -0.3221612559306952 1.6696902962910654 95 65 39
0.6088244005527229 -0.3216841827304177 1.6639200090183448 84 56 32
0.5790005631893772 -0.3183783296626880 1.6403688302152912 162 139 121
0.1073221004666459 -0.2119142218530884 1.5309084153653925 181 160 139
0.0761233446039606 -0.1854359788725720 1.5228129863709969 135 119 104
0.3664599912600255 -0.0954708283299177 1.4990833373243677 130 109 92
0.2082849093969962 -0.2378967459381182 1.4778927014693022 119 98 79
0.0832772152368183 -0.1711025593142942 1.4897896665484054 152 133 116
0.0864196928951237 -0.1757700861164416 1.4689943478269156 113 94 77
0.3243544602383308 -0.1602048935231831 1.5021450752809380 66 49 42
0.0197232209317375 -0.0060872910394305 1.3905568225861220 46 27 23
0.3315499889134554 -0.2562777378937174 1.5360892197023170 33 11 0
-0.1908495004836339 -0.0462192009722377 1.3942434954148830 69 47 24
-0.1865266606630833 -0.0543334762447165 1.3880396803737554 123 99 71
-0.3003235420397261 -0.0500370094036949 1.3452113541871369 130 109 88
-0.0824353405976792 -0.0520355665307859 1.4015314900482010 106 89 73
-0.0595725139075646 -0.0595970391125521 1.4342500615195444 89 69 44
0.6801159035313055 -0.0983275070416748 1.6020893030348751 81 47 20
-0.1874319747880338 -0.0303222143839113 1.4082743515447949 68 45 27
0.1693611593228079 -0.0665914773584016 1.4189882298258574 30 12 8
-0.2654554935174328 -0.0442322861010494 1.2728228660034098 38 18 7
0.0656518827604194 -0.0234705246512433 1.4066260526739272 34 21 15
0.6137331542543706 -0.1072794093916965 1.5895484752244107 144 114 90
-0.3513748644548248 -0.0246443719919967 1.2926752006318629 87 70 54
-0.1695538358474063 -0.0221306598815892 1.3322114837090557 63 45 33
-0.0660602113967867 -0.0215144388203843 1.3540036116575209 92 76 61
0.4500308229010515 -0.3449927304438398 1.5982403941050651 104 87 71
0.6417541884460812 -0.0995798374110729 1.5954390077301213 84 52 29
0.0425234502547506 -0.0074913025750222 1.4037471122712257 47 30 22
0.4588486284726902 -0.2822005890339309 1.6988942771874154 40 21 6
0.5078273395324213 -0.3258319831480742 1.6334065017294854 51 24 5
0.5202567579197039 -0.3238817461351912 1.6369591423943934 65 37 16
0.2233715186100366 -0.0965260126510827 1.4167052941540816 65 44 25
0.2792475707878950 -0.2976319072487102 1.5369778004447805 87 66 49
0.1087348857655911 -0.2495541914602757 1.5640988344228153 189 172 154
0.8445612915433398 -0.3051681223809272 1.7523017171491364 61 43 23
0.4419897393309872 -0.2504230311748802 1.7551444420855005 122 98 70
0.2958202415089523 -0.2405713132176895 1.5127264263612128 31 13 3
0.8229426068209771 -0.0649124154458723 1.7018964066049853 61 42 28
0.7431636511826251 -0.2838666503592048 1.7670379373250809 19 9 0
0.0018785607516727 -0.1070404722430281 1.4560004633482158 85 78 70
0.0789379774283014 -0.1455498874978101 1.4427386126709667 187 170 154
0.2412995622690344 -0.3196844085772439 1.6391104679465449 104 84 59
0.0910680979879952 -0.1469970654027034 1.4389492033846716 44 23 6
0.2103792097858283 -0.3164062623740236 1.5792303094009665 87 66 47
0.3375305932446117 -0.3114965110994916 1.6184651887088535 139 112 67
0.1860065491131908 -0.3067584166035176 1.5475892832813303 83 61 38
-0.0841340499410939 -0.0628644410157577 1.4284793463302035 109 93 70
-0.1492263118784406 -0.0520093294597788 1.4111934301947471 77 64 48
0.2788981709845979 -0.1598532023028789 1.4795767898336460 92 70 56
0.8558329274782842 -0.3154480622800528 1.8551257194841262 97 76 57
-0.0667421044155646 0.0028810804633309 1.3649906743948907 182 182 182
-0.0658193497137639 -0.0673140840214733 1.4228735170978910 134 114 87
0.3978286378678876 -0.1252180761679730 1.5551167809015687 45 23 10
0.1564285019421823 -0.2686613126952867 1.5160258971853979 161 140 123
0.8920812308544053 -0.3320577385841346 1.7949163766149976 133 93 58
0.2383188006056142 -0.3151691713028786 1.5815633713245107 20 6 3
0.8741286745826234 -0.3580143601380291 1.7311437752484935 145 118 89
0.3668543896163435 -0.2925645088986045 1.5746036985436600 73 53 42
0.3302412006301041 -0.2743009880908271 1.5322165073821854 139 112 93
0.7422163305337238 -0.2500133210578747 1.8290503350560099 123 93 65
0.0875001352994091 -0.1893122878059202 1.5119451976614466 170 148 127
0.1524757064388337 -0.1242484740279430 1.4089739543563369 63 44 27
0.0601272103839460 -0.1655598691171954 1.4998336186664372 84 74 64
0.8607505203167938 -0.2878150257618846 1.7530612707941242 119 85 60
0.0545059243350342 -0.1588788780123376 1.4970518363188079 88 79 64
0.5858597685015071 -0.0911302968569265 1.5860186788135358 86 54 29
0.1619807984997450 -0.2391749161547359 1.4900672504674524 59 37 23
0.0411785086754072 -0.2536509766502669 1.3248234239135472 115 95 71
0.2381055695003006 -0.0892036419143022 1.4294855521076686 129 107 83
0.0613509322660073 -0.0223134642687069 1.4036433136254121 28 15 6
0.2146719539259725 -0.0939791843707286 1.4172452150957735 69 46 30
0.1211071358576835 -0.0775812229257306 1.4055254226437610 148 134 121
-0.2902849718506687 -0.0585915324544276 1.2485954008776934 91 74 64
-0.2989977364938850 -0.0289943562396153 1.2318442182887939 91 80 74
-0.1254002881570871 -0.0377343151366256 1.3962437124309361 173 157 131
0.8019707717989630 -0.3198822952217504 1.7339060831187476 127 103 79
0.0954448830868358 -0.2081914703196125 1.5198114399463383 205 187 163
0.0914888033229274 -0.1890659947913470 1.5048301563120834 67 47 38
0.2441410211311723 -0.1296434637236132 1.4189286902352687 27 8 1
0.4053994315740099 -0.0830551678284216 1.6170734196091867 37 19 7
-0.0555303124011731 -0.0302683062047175 1.3504666942686154 45 29 16
0.3882988548218858 -0.1328348664387573 1.5071440185954768 38 18 7
0.0341510038216604 -0.0863511125147224 1.4026225125298122 177 159 145
0.1734689105328665 -0.0543326181721483 1.4248307198829793 177 173 172
0.3287739741221887 -0.3161518211423901 1.5870003622803415 129 102 59
-0.2625581008373504 -0.0239781564104446 1.1968463115148453 94 78 55
0.2697211887350651 -0.2975684483836084 1.5244217199736518 49 31 21
0.5325357114326141 -0.0807021644314212 1.5951030230818417 113 79 54
0.2274506772124789 -0.3111432402114824 1.5778201180815556 28 9 2
0.4119540332070100 -0.2785433180369135 1.7179161837773860 52 33 18
0.0675063652031762 -0.1273061586493149 1.4465837284443555 87 69 47
0.1431863298152619 -0.2773304735435623 1.5488876691800624 158 143 122
-0.0322195546093963 -0.0777891381261602 1.4405584052131513 123 99 71
0.2116046181248777 -0.0882782253847550 1.4200283694974676 70 49 32
0.1507654027397420 -0.2739610450384865 1.5338445549635009 92 75 59
0.4151811054594611 -0.2995142827705604 1.6350593247546841 36 19 12
0.1453032836168998 -0.2700586024371681 1.5290415170873657 93 74 59
0.7287883816920274 -0.0701956975023327 1.6142942994784188 75 43 18
-0.0094545177420328 -0.0803221218086280 1.4347026412258861 115 97 77
-0.1722765554241783 -0.0476252831050070 1.3974006326435777 65 43 20
0.0231271997675195 -0.0907872397170247 1.4349338569199868 64 46 24
0.5241754771280872 -0.3210496256209672 1.6272128465604336 87 59 37
0.1621220923129843 -0.2694074361562225 1.5056042763587381 169 147 126
0.0893732562593028 -0.1815328435063212 1.5744653565240956 103 85 65
0.1673773956056591 -0.2975637214349756 1.5361095351176637 140 119 92
0.1885813753138665 -0.2615068070853986 1.4946415938238256 214 208 196
0.8872716445779865 -0.3136435865908661 1.8490327698963607 132 88 43
0.0456080607484539 -0.1475202633999438 1.4967321518796695 85 78 62
0.1612761726521371 -0.2050026043797106 1.4658394726672868 178 161 145
